ply
format ascii 1.0
element vertex 819
property float x 
property float y
property float z
property float nx 
property float ny
property float nz
end_header
-0.403419 -0.381554 0.229640 -0.385947 -0.788056 0.479597 
-0.408101 -0.374710 0.226830 -0.410522 -0.770224 0.488087 
-0.412129 -0.367929 0.224415 -0.434058 -0.748852 0.500813 
-0.416798 -0.361122 0.221611 -0.459640 -0.722692 0.516186 
-0.420260 -0.354415 0.219537 -0.487300 -0.696589 0.526598 
-0.423293 -0.347761 0.217719 -0.507887 -0.671879 0.539101 
-0.426158 -0.341128 0.216004 -0.527219 -0.644879 0.553328 
-0.428694 -0.334525 0.214478 -0.546279 -0.619184 0.564084 
-0.430930 -0.327952 0.213143 -0.561198 -0.596376 0.573927 
-0.432936 -0.321402 0.211940 -0.572118 -0.572963 0.586851 
-0.434905 -0.314867 0.210766 -0.585324 -0.560805 0.585571 
-0.436925 -0.308333 0.209557 -0.594267 -0.550853 0.586009 
-0.438565 -0.301835 0.208572 -0.599475 -0.541582 0.589338 
-0.440281 -0.295330 0.207548 -0.601004 -0.530131 0.598128 
-0.441956 -0.288839 0.206546 -0.604547 -0.526439 0.597817 
-0.444005 -0.282334 0.205314 -0.609900 -0.528787 0.590260 
-0.445896 -0.275854 0.204186 -0.614363 -0.534786 0.580139 
-0.447558 -0.269378 0.203190 -0.623078 -0.543692 0.562291 
-0.449287 -0.262919 0.202160 -0.634347 -0.550773 0.542451 
-0.451286 -0.256443 0.200962 -0.648692 -0.558349 0.517151 
-0.453771 -0.249962 0.199469 -0.668650 -0.562989 0.485748 
-0.455825 -0.243510 0.198243 -0.694930 -0.564406 0.445553 
-0.457846 -0.237058 0.197034 -0.713995 -0.557968 0.422943 
-0.459533 -0.230636 0.196024 -0.736892 -0.547790 0.396128 
-0.460639 -0.224237 0.195356 -0.762809 -0.526294 0.375681 
-0.461537 -0.217846 0.194828 -0.795225 -0.498581 0.345011 
-0.462029 -0.211475 0.194534 -0.822332 -0.463315 0.330319 
-0.462346 -0.205105 0.194346 -0.853942 -0.417415 0.310721 
-0.462259 -0.198749 0.194401 -0.884666 -0.365530 0.289403 
-0.461673 -0.192402 0.194758 -0.907536 -0.315614 0.277063 
-0.460733 -0.186069 0.195333 -0.936026 -0.241166 0.256309 
-0.459049 -0.179735 0.196348 -0.953006 -0.178549 0.244745 
-0.456954 -0.173408 0.197610 -0.965332 -0.113595 0.235013 
-0.454713 -0.167074 0.198964 -0.976939 -0.040341 0.209669 
-0.451287 -0.160740 0.201027 -0.977186 0.042276 0.208138 
-0.447258 -0.154404 0.203450 -0.973403 0.139010 0.182104 
-0.442158 -0.148060 0.206520 -0.958758 0.229801 0.167258 
-0.436151 -0.141701 0.210128 -0.924785 0.353133 0.141668 
-0.427681 -0.135332 0.215229 -0.883757 0.451585 0.122656 
-0.411787 -0.128950 0.224777 -0.777954 0.620161 0.100929 
-0.350009 -0.122542 0.261902 -0.913794 -0.157532 0.374384 
-0.343364 -0.115949 0.265905 -0.882190 -0.266712 0.388079 
-0.340503 -0.109342 0.267626 -0.841008 -0.352886 0.410093 
-0.340496 -0.102738 0.267633 -0.816250 -0.394720 0.421821 
-0.341482 -0.096141 0.267044 -0.785039 -0.458298 0.416744 
-0.342902 -0.089553 0.266193 -0.764405 -0.501399 0.405323 
-0.344820 -0.082972 0.265052 -0.735384 -0.538657 0.411167 
-0.346447 -0.076399 0.264074 -0.717957 -0.572428 0.396059 
-0.348326 -0.069835 0.262953 -0.705998 -0.594906 0.384260 
-0.350066 -0.063276 0.261909 -0.694953 -0.614677 0.373112 
-0.351649 -0.056726 0.260960 -0.694480 -0.617862 0.368705 
-0.353083 -0.050176 0.260103 -0.701417 -0.612752 0.364074 
-0.354687 -0.043632 0.259145 -0.713141 -0.601413 0.360184 
-0.356241 -0.037097 0.258220 -0.730375 -0.582988 0.355918 
-0.357591 -0.030561 0.257412 -0.749936 -0.560421 0.351462 
-0.358711 -0.024027 0.256738 -0.769525 -0.538009 0.344062 
-0.359609 -0.017483 0.256209 -0.787607 -0.514148 0.339600 
-0.360030 -0.010932 0.255960 -0.805923 -0.487341 0.336139 
-0.360171 -0.004372 0.255877 -0.821301 -0.461700 0.335105 
-0.360112 0.002194 0.255918 -0.834251 -0.437116 0.336087 
-0.359597 0.008777 0.256230 -0.843349 -0.415331 0.340977 
-0.358961 0.015366 0.256619 -0.849966 -0.394133 0.349593 
-0.358155 0.021971 0.257111 -0.855960 -0.374157 0.356849 
-0.357833 0.028554 0.257301 -0.858491 -0.356661 0.368490 
-0.357652 0.035135 0.257422 -0.859649 -0.340485 0.380885 
-0.357695 0.041702 0.257396 -0.860993 -0.326133 0.390294 
-0.357630 0.048269 0.257441 -0.862901 -0.312135 0.397460 
-0.357472 0.054852 0.257539 -0.866829 -0.287371 0.407462 
-0.357191 0.061432 0.257709 -0.871358 -0.261570 0.415112 
-0.356534 0.068045 0.258110 -0.879808 -0.233595 0.413969 
-0.355607 0.074674 0.258678 -0.889940 -0.197393 0.411148 
-0.354417 0.081316 0.259397 -0.900399 -0.151189 0.407952 
-0.352860 0.087997 0.260331 -0.913615 -0.107039 0.392237 
-0.350984 0.094702 0.261467 -0.920972 -0.055324 0.385681 
-0.348455 0.101452 0.262990 -0.930545 0.011799 0.365986 
-0.345220 0.108269 0.264941 -0.932444 0.080076 0.352330 
-0.341015 0.115165 0.267470 -0.928749 0.137396 0.344305 
-0.335114 0.122203 0.271016 -0.919595 0.181542 0.348407 
-0.327935 0.129357 0.275337 -0.911121 0.215804 0.351125 
-0.320582 0.136565 0.279763 -0.900104 0.243361 0.361368 
-0.315637 0.143602 0.282738 -0.892835 0.255657 0.370790 
-0.311135 0.150626 0.285450 -0.889070 0.263689 0.374194 
-0.305443 0.157764 0.288875 -0.886660 0.272662 0.373484 
-0.298354 0.165047 0.293134 -0.883948 0.292350 0.364919 
-0.291661 0.172329 0.297161 -0.876883 0.332022 0.347616 
-0.285270 0.179602 0.301012 -0.872555 0.363229 0.326667 
-0.275700 0.187203 0.306766 -0.864773 0.395778 0.309076 
-0.263467 0.195087 0.314121 -0.851019 0.426226 0.306751 
-0.252200 0.202923 0.320892 -0.816328 0.477046 0.325630 
-0.242072 0.210699 0.326983 -0.790240 0.492488 0.364663 
-0.225134 0.219198 0.337165 -0.761772 0.510572 0.398772 
-0.215189 0.227048 0.343148 -0.752012 0.522724 0.401544 
-0.198807 0.235607 0.353003 -0.694088 0.613366 0.376860 
-0.153202 0.380000 0.380500 -0.004129 -0.663236 0.748400 
-0.160399 0.385929 0.376176 -0.103525 -0.675953 0.729638 
-0.171818 0.391202 0.369321 -0.230075 -0.685960 0.690307 
-0.182343 0.396567 0.363004 -0.328629 -0.699776 0.634285 
-0.186569 0.402843 0.360464 -0.393497 -0.679376 0.619361 
-0.190122 0.409211 0.358336 -0.478544 -0.640364 0.600775 
-0.192851 0.415693 0.356705 -0.513150 -0.623683 0.589657 
-0.194773 0.422295 0.355554 -0.562799 -0.595552 0.573216 
-0.196947 0.428846 0.354249 -0.607410 -0.551413 0.571838 
-0.198636 0.435465 0.353240 -0.660180 -0.519136 0.542826 
-0.198510 0.442378 0.353316 -0.713479 -0.472842 0.517076 
-0.191326 0.450462 0.357640 -0.744427 -0.350850 0.568094 
-0.280454 -0.465205 0.295654 0.289285 -0.895910 0.337135 
-0.317578 -0.454721 0.273437 0.182126 -0.927033 0.327782 
-0.334271 -0.446421 0.263454 0.047735 -0.939807 0.338359 
-0.347920 -0.438481 0.255290 -0.022758 -0.937293 0.347803 
-0.358409 -0.430902 0.249019 -0.105271 -0.929080 0.354584 
-0.366536 -0.423578 0.244157 -0.162889 -0.913775 0.372135 
-0.374139 -0.416344 0.239615 -0.225300 -0.895257 0.384391 
-0.381102 -0.409194 0.235452 -0.259995 -0.880909 0.395475 
-0.387187 -0.402148 0.231814 -0.291650 -0.865069 0.408163 
-0.392641 -0.395178 0.228550 -0.325604 -0.845970 0.422276 
-0.397776 -0.388259 0.225480 -0.353912 -0.827957 0.435012 
-0.402867 -0.381364 0.222439 -0.376875 -0.810135 0.449051 
-0.407220 -0.374543 0.219844 -0.402356 -0.794381 0.455049 
-0.411892 -0.367722 0.217046 -0.426231 -0.774559 0.467319 
-0.416331 -0.360933 0.214392 -0.451221 -0.758679 0.469902 
-0.419634 -0.354247 0.212423 -0.477771 -0.735990 0.479640 
-0.422919 -0.347577 0.210464 -0.504921 -0.709293 0.491894 
-0.426246 -0.340915 0.208474 -0.525371 -0.684029 0.506054 
-0.428706 -0.334327 0.207012 -0.543424 -0.662878 0.515056 
-0.431109 -0.327747 0.205576 -0.560807 -0.637684 0.528065 
-0.433410 -0.321190 0.204201 -0.574391 -0.616098 0.538978 
-0.435540 -0.314647 0.202929 -0.585747 -0.595683 0.549602 
-0.437522 -0.308128 0.201748 -0.595040 -0.578512 0.557900 
-0.439316 -0.301622 0.200678 -0.602927 -0.559006 0.569203 
-0.440975 -0.295132 0.199691 -0.610169 -0.550532 0.569744 
-0.442449 -0.288658 0.198814 -0.617021 -0.546743 0.566002 
-0.444326 -0.282175 0.197693 -0.626670 -0.546306 0.555731 
-0.446008 -0.275700 0.196687 -0.636933 -0.547792 0.542439 
-0.447490 -0.269249 0.195806 -0.648087 -0.549765 0.527012 
-0.449246 -0.262789 0.194763 -0.662810 -0.551898 0.506056 
-0.451110 -0.256328 0.193649 -0.677003 -0.555209 0.483126 
-0.453190 -0.249869 0.192409 -0.699976 -0.556694 0.447354 
-0.455115 -0.243419 0.191266 -0.720526 -0.558541 0.410942 
-0.456746 -0.236996 0.190292 -0.738772 -0.555777 0.381220 
-0.457967 -0.230589 0.189566 -0.760656 -0.546940 0.349657 
-0.459058 -0.224189 0.188915 -0.785945 -0.531000 0.316750 
-0.459965 -0.217804 0.188373 -0.811545 -0.506688 0.290968 
-0.460518 -0.211435 0.188050 -0.835301 -0.478976 0.269917 
-0.460818 -0.205064 0.187879 -0.865187 -0.438881 0.242559 
-0.460762 -0.198709 0.187910 -0.894283 -0.387260 0.224251 
-0.460216 -0.192369 0.188246 -0.916928 -0.339710 0.209380 
-0.459309 -0.186035 0.188787 -0.940106 -0.278657 0.196346 
-0.457756 -0.179703 0.189728 -0.963584 -0.191857 0.186270 
-0.455744 -0.173377 0.190933 -0.976424 -0.132785 0.170190 
-0.453364 -0.167050 0.192363 -0.986190 -0.054782 0.156296 
-0.450078 -0.160715 0.194331 -0.989751 0.011187 0.142364 
-0.446620 -0.154379 0.196411 -0.986249 0.115347 0.118350 
-0.441498 -0.148037 0.199474 -0.973492 0.205501 0.100423 
-0.435508 -0.141684 0.203065 -0.940517 0.330273 0.079672 
-0.426924 -0.135323 0.208207 -0.900312 0.430166 0.066303 
-0.413436 -0.128935 0.216282 -0.812783 0.581022 0.042389 
-0.358457 -0.122525 0.249195 -0.911275 0.162816 0.378245 
-0.343863 -0.115947 0.257934 -0.879390 -0.281539 0.383939 
-0.340646 -0.109349 0.259868 -0.850133 -0.347721 0.395428 
-0.339829 -0.102743 0.260355 -0.825747 -0.397800 0.399872 
-0.340602 -0.096147 0.259898 -0.794460 -0.453697 0.403721 
-0.341929 -0.089566 0.259110 -0.775272 -0.497339 0.389367 
-0.343476 -0.082985 0.258188 -0.750528 -0.532216 0.391735 
-0.345015 -0.076420 0.257271 -0.732471 -0.569418 0.373159 
-0.346862 -0.069854 0.256174 -0.712877 -0.597696 0.366834 
-0.348507 -0.063296 0.255195 -0.703113 -0.613186 0.360048 
-0.350110 -0.056746 0.254235 -0.700132 -0.621406 0.351667 
-0.351629 -0.050203 0.253328 -0.705076 -0.618682 0.346557 
-0.353183 -0.043660 0.252403 -0.715605 -0.609010 0.342079 
-0.354769 -0.037133 0.251461 -0.732599 -0.591814 0.336235 
-0.356452 -0.030605 0.250455 -0.752339 -0.569700 0.330796 
-0.357680 -0.024078 0.249726 -0.771037 -0.547395 0.325361 
-0.358622 -0.017542 0.249166 -0.787719 -0.525736 0.321094 
-0.359042 -0.010997 0.248917 -0.804694 -0.500032 0.320055 
-0.359159 -0.004438 0.248853 -0.819227 -0.475469 0.320617 
-0.359054 0.002129 0.248920 -0.831088 -0.452320 0.323571 
-0.358319 0.008718 0.249367 -0.839620 -0.430582 0.331115 
-0.357790 0.015301 0.249686 -0.845505 -0.411842 0.339862 
-0.357367 0.021883 0.249944 -0.849535 -0.395077 0.349577 
-0.357106 0.028457 0.250103 -0.852395 -0.378222 0.361068 
-0.357033 0.035024 0.250151 -0.854277 -0.362426 0.372638 
-0.357235 0.041583 0.250039 -0.856743 -0.348689 0.380012 
-0.357247 0.048142 0.250037 -0.860977 -0.327402 0.389265 
-0.357155 0.054715 0.250095 -0.866134 -0.308113 0.393544 
-0.356856 0.061298 0.250281 -0.873879 -0.284184 0.394430 
-0.356301 0.067895 0.250615 -0.884649 -0.252327 0.392078 
-0.355448 0.074508 0.251129 -0.898951 -0.214233 0.382086 
-0.354114 0.081158 0.251934 -0.912349 -0.174511 0.370357 
-0.352586 0.087824 0.252855 -0.927304 -0.121045 0.354198 
-0.350750 0.094521 0.253954 -0.938393 -0.080124 0.336151 
-0.348258 0.101271 0.255449 -0.946605 -0.011476 0.322192 
-0.345222 0.108067 0.257276 -0.952022 0.050014 0.301916 
-0.341319 0.114931 0.259613 -0.949744 0.104037 0.295236 
-0.335577 0.121956 0.263054 -0.939919 0.153197 0.305093 
-0.329628 0.129010 0.266625 -0.931385 0.187612 0.311966 
-0.322818 0.136163 0.270701 -0.919176 0.218539 0.327654 
-0.317049 0.143256 0.274157 -0.910483 0.236071 0.339544 
-0.312628 0.150264 0.276812 -0.903704 0.248434 0.348713 
-0.307912 0.157311 0.279638 -0.896600 0.267231 0.353121 
-0.301805 0.164501 0.283297 -0.893249 0.284058 0.348448 
-0.294509 0.171821 0.287667 -0.885697 0.323797 0.332707 
-0.287196 0.179164 0.292056 -0.877831 0.361815 0.313850 
-0.278051 0.186712 0.297529 -0.872991 0.388374 0.295045 
-0.267132 0.194458 0.304067 -0.869627 0.404772 0.282680 
-0.256498 0.202227 0.310446 -0.848845 0.436424 0.298323 
-0.248470 0.209781 0.315250 -0.826021 0.460994 0.324305 
-0.239224 0.217487 0.320791 -0.804433 0.479040 0.351294 
-0.218000 0.226451 0.333497 -0.766152 0.514135 0.385587 
-0.208136 0.234324 0.339407 -0.741895 0.571953 0.349944 
-0.143370 0.373972 0.378265 0.114050 -0.700227 0.704751 
-0.157010 0.379002 0.370103 -0.061506 -0.736940 0.673155 
-0.170483 0.384002 0.362050 -0.228091 -0.749746 0.621174 
-0.177841 0.389853 0.357648 -0.281541 -0.742522 0.607780 
-0.181793 0.396183 0.355286 -0.347615 -0.726865 0.592312 
-0.185290 0.402574 0.353194 -0.412313 -0.706406 0.575316 
-0.188008 0.409063 0.351577 -0.491931 -0.668693 0.557543 
-0.190691 0.415552 0.349970 -0.539960 -0.652974 0.531101 
-0.193066 0.422079 0.348558 -0.573238 -0.635552 0.517176 
-0.195156 0.428636 0.347305 -0.622597 -0.609403 0.490921 
-0.196827 0.435263 0.346313 -0.660979 -0.587652 0.466660 
-0.197516 0.442040 0.345905 -0.711803 -0.503916 0.489291 
-0.192717 0.449721 0.348783 -0.744218 -0.455513 0.488515 
-0.283897 -0.464534 0.285796 0.283272 -0.905703 0.315373 
-0.315471 -0.454635 0.266979 0.175049 -0.935002 0.308432 
-0.333282 -0.446223 0.256371 0.052667 -0.946822 0.317419 
-0.346662 -0.438313 0.248399 -0.023036 -0.945469 0.324899 
-0.356594 -0.430795 0.242483 -0.099616 -0.938631 0.330225 
-0.364909 -0.423455 0.237526 -0.145872 -0.927428 0.344384 
-0.372533 -0.416222 0.232992 -0.209678 -0.909757 0.358298 
-0.379436 -0.409078 0.228877 -0.251470 -0.894645 0.369288 
-0.385359 -0.402046 0.225352 -0.280766 -0.883333 0.375360 
-0.391143 -0.395054 0.221906 -0.314800 -0.866578 0.387226 
-0.396563 -0.388113 0.218677 -0.343163 -0.851571 0.396317 
-0.401866 -0.381202 0.215521 -0.369359 -0.836262 0.405267 
-0.406512 -0.374367 0.212754 -0.395552 -0.818595 0.416464 
-0.410938 -0.367569 0.210123 -0.418790 -0.801454 0.426951 
-0.415148 -0.360802 0.207616 -0.443633 -0.783697 0.434753 
-0.418747 -0.354102 0.205475 -0.468448 -0.762741 0.445852 
-0.422384 -0.347410 0.203313 -0.494018 -0.738086 0.459538 
-0.425793 -0.340747 0.201283 -0.517451 -0.716602 0.467681 
-0.428298 -0.334160 0.199797 -0.538771 -0.696788 0.473511 
-0.431025 -0.327563 0.198176 -0.557220 -0.673372 0.485877 
-0.433722 -0.320985 0.196567 -0.573344 -0.650553 0.498054 
-0.435905 -0.314450 0.195278 -0.584931 -0.632144 0.508184 
-0.437921 -0.307930 0.194080 -0.597361 -0.613066 0.517021 
-0.439762 -0.301433 0.192986 -0.610160 -0.595808 0.522224 
-0.441498 -0.294943 0.191953 -0.621160 -0.581358 0.525530 
-0.443534 -0.288445 0.190744 -0.632663 -0.571394 0.522731 
-0.444756 -0.282002 0.190018 -0.643937 -0.561985 0.519152 
-0.446101 -0.275555 0.189221 -0.656541 -0.554691 0.511149 
-0.447611 -0.269104 0.188327 -0.673832 -0.551823 0.491366 
-0.449186 -0.262658 0.187392 -0.692429 -0.548895 0.468248 
-0.450731 -0.256214 0.186472 -0.710158 -0.550415 0.438997 
-0.452345 -0.249786 0.185515 -0.728746 -0.550947 0.406676 
-0.453658 -0.243363 0.184736 -0.748268 -0.550044 0.370871 
-0.455069 -0.236948 0.183898 -0.770817 -0.546356 0.327620 
-0.456149 -0.230547 0.183261 -0.785447 -0.542212 0.298465 
-0.457152 -0.224156 0.182671 -0.804247 -0.530698 0.267484 
-0.458071 -0.217771 0.182122 -0.827332 -0.511300 0.232585 
-0.458605 -0.211401 0.181807 -0.850246 -0.483476 0.208163 
-0.458938 -0.205039 0.181618 -0.874146 -0.451994 0.177681 
-0.458953 -0.198684 0.181607 -0.900733 -0.403838 0.159984 
-0.458400 -0.192344 0.181947 -0.919643 -0.364255 0.146886 
-0.457579 -0.186003 0.182439 -0.945751 -0.299155 0.126737 
-0.456074 -0.179677 0.183338 -0.968140 -0.221510 0.116790 
-0.454109 -0.173350 0.184519 -0.981259 -0.158373 0.109762 
-0.451758 -0.167024 0.185925 -0.992236 -0.083402 0.092260 
-0.448742 -0.160697 0.187724 -0.996815 -0.012643 0.078743 
-0.445031 -0.154363 0.189940 -0.994466 0.090491 0.053384 
-0.440169 -0.148027 0.192847 -0.979885 0.193940 0.047025 
-0.434209 -0.141674 0.196397 -0.956384 0.291590 0.017459 
-0.426343 -0.135306 0.201096 -0.910374 0.413427 0.017261 
-0.414242 -0.128919 0.208316 -0.848378 0.529258 -0.011862 
-0.395469 -0.122490 0.219509 -0.718679 0.695340 -0.001499 
-0.347212 -0.115948 0.248291 -0.893601 -0.213078 0.395064 
-0.341513 -0.109356 0.251685 -0.863993 -0.310239 0.396567 
-0.339423 -0.102756 0.252937 -0.823423 -0.410014 0.392254 
-0.340096 -0.096167 0.252546 -0.798106 -0.464100 0.384239 
-0.340802 -0.089579 0.252129 -0.783854 -0.493044 0.377466 
-0.342005 -0.082999 0.251414 -0.763137 -0.524358 0.377716 
-0.343376 -0.076433 0.250595 -0.743600 -0.561159 0.363539 
-0.345088 -0.069867 0.249584 -0.728220 -0.586965 0.353792 
-0.346838 -0.063316 0.248544 -0.713109 -0.610313 0.344957 
-0.348404 -0.056766 0.247613 -0.706000 -0.622843 0.337090 
-0.349889 -0.050223 0.246738 -0.709370 -0.622131 0.331281 
-0.351598 -0.043687 0.245718 -0.718913 -0.614788 0.324345 
-0.353290 -0.037168 0.244716 -0.734432 -0.599261 0.318584 
-0.355015 -0.030648 0.243696 -0.753769 -0.578234 0.312218 
-0.356288 -0.024120 0.242937 -0.770937 -0.557365 0.308226 
-0.357277 -0.017591 0.242353 -0.785972 -0.537439 0.305626 
-0.357683 -0.011048 0.242111 -0.802061 -0.512638 0.306431 
-0.357828 -0.004496 0.242035 -0.815753 -0.488980 0.308943 
-0.357772 0.002063 0.242066 -0.826541 -0.467249 0.313859 
-0.357241 0.008645 0.242395 -0.834080 -0.448132 0.321695 
-0.356880 0.015219 0.242613 -0.839835 -0.429783 0.331610 
-0.356676 0.021786 0.242737 -0.843750 -0.413551 0.342142 
-0.356683 0.028346 0.242736 -0.846321 -0.398849 0.353074 
-0.356617 0.034912 0.242781 -0.848887 -0.383603 0.363647 
-0.356650 0.041464 0.242770 -0.852959 -0.367432 0.370747 
-0.356679 0.048022 0.242751 -0.858907 -0.347015 0.376642 
-0.356579 0.054590 0.242812 -0.866973 -0.326415 0.376577 
-0.356268 0.061171 0.243006 -0.877107 -0.299960 0.375109 
-0.355695 0.067761 0.243355 -0.889925 -0.268032 0.369041 
-0.354957 0.074367 0.243796 -0.907010 -0.227063 0.354649 
-0.353753 0.081002 0.244520 -0.922475 -0.186998 0.337744 
-0.351982 0.087682 0.245580 -0.938324 -0.134073 0.318704 
-0.350165 0.094372 0.246669 -0.948768 -0.091229 0.302515 
-0.347626 0.101114 0.248188 -0.958443 -0.035602 0.283053 
-0.344716 0.107895 0.249925 -0.963192 0.031324 0.266982 
-0.341454 0.114713 0.251874 -0.962515 0.078500 0.259620 
-0.335764 0.121722 0.255272 -0.956490 0.120805 0.265578 
-0.330009 0.128761 0.258704 -0.945422 0.162563 0.282400 
-0.324003 0.135840 0.262294 -0.936146 0.189692 0.296051 
-0.318295 0.142924 0.265702 -0.925677 0.213968 0.311993 
-0.314012 0.149909 0.268263 -0.918924 0.230981 0.319727 
-0.309494 0.156933 0.270956 -0.912539 0.248030 0.325197 
-0.304079 0.164055 0.274192 -0.904318 0.273489 0.327735 
-0.297310 0.171314 0.278233 -0.896108 0.312314 0.315355 
-0.289604 0.178688 0.282833 -0.886938 0.354986 0.295508 
-0.280817 0.186183 0.288077 -0.878743 0.386846 0.279572 
-0.269804 0.193929 0.294645 -0.873913 0.404926 0.268907 
-0.259814 0.201620 0.300608 -0.875903 0.404068 0.263674 
-0.252244 0.209115 0.305126 -0.851298 0.433158 0.296083 
-0.245286 0.216578 0.309276 -0.834456 0.452260 0.314872 
-0.235766 0.224340 0.314962 -0.815577 0.473862 0.332097 
-0.215589 0.233233 0.326993 -0.764571 0.554541 0.328506 
-0.199950 0.241729 0.336323 -0.741099 0.593514 0.313868 
-0.152478 0.372237 0.364719 -0.018220 -0.796156 0.604819 
-0.163317 0.377647 0.358254 -0.146577 -0.802387 0.578526 
-0.171925 0.383346 0.353124 -0.249230 -0.796617 0.550715 
-0.176574 0.389583 0.350364 -0.298698 -0.785043 0.542669 
-0.180530 0.395914 0.348010 -0.365738 -0.768186 0.525478 
-0.183423 0.402394 0.346288 -0.437835 -0.729905 0.524920 
-0.186019 0.408899 0.344741 -0.509135 -0.697664 0.504031 
-0.188461 0.415427 0.343295 -0.548136 -0.677661 0.490228 
-0.190659 0.421977 0.341988 -0.580489 -0.661342 0.475038 
-0.193239 0.428458 0.340448 -0.632853 -0.625717 0.456043 
-0.195438 0.434993 0.339142 -0.659839 -0.601930 0.449771 
-0.196545 0.441696 0.338492 -0.695914 -0.561702 0.447429 
-0.191422 0.449428 0.341548 -0.740632 -0.483100 0.466989 
-0.284600 -0.464147 0.277604 0.271922 -0.916914 0.292113 
-0.312990 -0.454579 0.260750 0.173237 -0.941207 0.290035 
-0.331675 -0.446084 0.249663 0.051473 -0.954569 0.293511 
-0.344918 -0.438197 0.241802 -0.017637 -0.953401 0.301193 
-0.354728 -0.430685 0.235981 -0.094445 -0.946814 0.307610 
-0.363240 -0.423339 0.230927 -0.134679 -0.939942 0.313645 
-0.370920 -0.416098 0.226371 -0.196417 -0.923770 0.328740 
-0.377573 -0.408977 0.222432 -0.237465 -0.909176 0.342069 
-0.383526 -0.401953 0.218902 -0.271751 -0.898253 0.345391 
-0.389278 -0.394960 0.215489 -0.304698 -0.884246 0.353932 
-0.394937 -0.388005 0.212131 -0.333079 -0.870829 0.361546 
-0.400369 -0.381087 0.208911 -0.361112 -0.855791 0.370433 
-0.405052 -0.374252 0.206135 -0.387338 -0.839953 0.380067 
-0.409665 -0.367439 0.203402 -0.411851 -0.823751 0.389633 
-0.413849 -0.360679 0.200915 -0.435466 -0.806730 0.399448 
-0.417816 -0.353956 0.198564 -0.461605 -0.785975 0.411298 
-0.421425 -0.347264 0.196426 -0.485302 -0.765509 0.422468 
-0.424552 -0.340631 0.194578 -0.508243 -0.744978 0.432085 
-0.427696 -0.334000 0.192713 -0.527678 -0.723825 0.444561 
-0.430822 -0.327389 0.190859 -0.548101 -0.699823 0.458075 
-0.433669 -0.320802 0.189177 -0.564415 -0.680429 0.467391 
-0.435817 -0.314274 0.187904 -0.580620 -0.659025 0.478087 
-0.438252 -0.307739 0.186462 -0.593772 -0.640914 0.486481 
-0.440252 -0.301235 0.185280 -0.611151 -0.620575 0.491308 
-0.442280 -0.294738 0.184076 -0.627576 -0.603085 0.492379 
-0.444138 -0.288263 0.182981 -0.643666 -0.586493 0.491651 
-0.445366 -0.281818 0.182252 -0.659909 -0.573990 0.484826 
-0.446592 -0.275389 0.181533 -0.679752 -0.561812 0.471491 
-0.447672 -0.268967 0.180897 -0.697982 -0.553628 0.454220 
-0.448802 -0.262544 0.180224 -0.717804 -0.547957 0.429536 
-0.449858 -0.256129 0.179607 -0.736892 -0.544743 0.400307 
-0.450814 -0.249722 0.179041 -0.755391 -0.543372 0.366240 
-0.451894 -0.243316 0.178403 -0.771376 -0.540834 0.335378 
-0.453007 -0.236915 0.177749 -0.789511 -0.538765 0.293946 
-0.454047 -0.230523 0.177132 -0.807926 -0.532631 0.252111 
-0.455056 -0.224129 0.176537 -0.824074 -0.521012 0.222370 
-0.456000 -0.217746 0.175984 -0.843433 -0.504017 0.185977 
-0.456493 -0.211377 0.175692 -0.863068 -0.481469 0.152646 
-0.456765 -0.205014 0.175534 -0.880227 -0.457940 0.124468 
-0.456719 -0.198666 0.175567 -0.902670 -0.418739 0.099222 
-0.456234 -0.192325 0.175857 -0.923220 -0.374265 0.087134 
-0.455445 -0.185986 0.176332 -0.946553 -0.314954 0.069588 
-0.454075 -0.179659 0.177146 -0.968381 -0.245097 0.046549 
-0.452290 -0.173332 0.178213 -0.982964 -0.178353 0.044410 
-0.450140 -0.166999 0.179494 -0.994104 -0.106610 0.019758 
-0.446809 -0.160679 0.181476 -0.999642 -0.025925 0.006730 
-0.442978 -0.154351 0.183758 -0.997628 0.068101 -0.009959 
-0.438638 -0.148009 0.186338 -0.988674 0.147721 -0.026517 
-0.433301 -0.141658 0.189509 -0.963989 0.263715 -0.034330 
-0.426261 -0.135290 0.193702 -0.928804 0.367615 -0.046699 
-0.413866 -0.128910 0.201061 -0.859305 0.508312 -0.056694 
-0.394409 -0.122487 0.212620 -0.753207 0.655607 -0.053471 
-0.350776 -0.115958 0.238541 -0.910390 -0.089878 0.403869 
-0.342326 -0.109363 0.243565 -0.866161 -0.309002 0.392790 
-0.339407 -0.102763 0.245299 -0.844153 -0.368645 0.389237 
-0.339080 -0.096173 0.245501 -0.818807 -0.423564 0.387491 
-0.339650 -0.089592 0.245160 -0.788137 -0.492632 0.368991 
-0.340805 -0.083020 0.244486 -0.780110 -0.512977 0.358166 
-0.342067 -0.076445 0.243740 -0.754835 -0.555726 0.348417 
-0.343564 -0.069887 0.242851 -0.735374 -0.590289 0.332844 
-0.345211 -0.063337 0.241879 -0.721666 -0.609161 0.328820 
-0.346706 -0.056786 0.240992 -0.713141 -0.622796 0.321798 
-0.348388 -0.050251 0.240002 -0.713580 -0.626042 0.314445 
-0.350009 -0.043716 0.239044 -0.722129 -0.619410 0.307995 
-0.351573 -0.037188 0.238122 -0.736438 -0.605641 0.301427 
-0.353315 -0.030676 0.237087 -0.753629 -0.586651 0.296452 
-0.354682 -0.024155 0.236279 -0.770657 -0.565080 0.294572 
-0.355725 -0.017627 0.235669 -0.785048 -0.544984 0.294435 
-0.356160 -0.011092 0.235412 -0.799092 -0.523565 0.295522 
-0.356439 -0.004547 0.235252 -0.811576 -0.501040 0.300506 
-0.356522 0.002004 0.235206 -0.820747 -0.481817 0.306966 
-0.356014 0.008579 0.235515 -0.828413 -0.462793 0.315522 
-0.355816 0.015146 0.235634 -0.834011 -0.445737 0.325185 
-0.355802 0.021697 0.235645 -0.837644 -0.431154 0.335349 
-0.355983 0.028249 0.235542 -0.840821 -0.416702 0.345513 
-0.356127 0.034793 0.235465 -0.844676 -0.401332 0.354195 
-0.356295 0.041345 0.235368 -0.850678 -0.382785 0.360307 
-0.356110 0.047911 0.235481 -0.859587 -0.361014 0.361631 
-0.355998 0.054469 0.235550 -0.870273 -0.337772 0.358518 
-0.355790 0.061037 0.235683 -0.882993 -0.311103 0.351479 
-0.355215 0.067627 0.236025 -0.898007 -0.279496 0.339800 
-0.354386 0.074233 0.236520 -0.916365 -0.238246 0.321735 
-0.353134 0.080867 0.237269 -0.932731 -0.192547 0.304857 
-0.351375 0.087541 0.238320 -0.948195 -0.145205 0.282560 
-0.349373 0.094237 0.239512 -0.959027 -0.100643 0.264836 
-0.346781 0.100981 0.241057 -0.967115 -0.042961 0.250687 
-0.343627 0.107768 0.242934 -0.972620 0.005433 0.232339 
-0.339895 0.114617 0.245160 -0.970960 0.061560 0.231187 
-0.335281 0.121551 0.247903 -0.966761 0.097047 0.236547 
-0.329718 0.128567 0.251212 -0.958670 0.134346 0.250805 
-0.324263 0.135598 0.254450 -0.948513 0.168841 0.267986 
-0.319416 0.142600 0.257334 -0.940084 0.189779 0.283241 
-0.315279 0.149570 0.259795 -0.932756 0.208450 0.294136 
-0.310960 0.156563 0.262367 -0.927079 0.226478 0.298718 
-0.306001 0.163639 0.265315 -0.920045 0.247898 0.303419 
-0.299596 0.170853 0.269122 -0.907216 0.300818 0.294054 
-0.292243 0.178181 0.273496 -0.897670 0.343941 0.275486 
-0.283378 0.185676 0.278769 -0.887411 0.379575 0.261585 
-0.272158 0.193430 0.285433 -0.883776 0.397955 0.246112 
-0.261771 0.201153 0.291611 -0.878570 0.406250 0.251150 
-0.254271 0.208624 0.296069 -0.881177 0.397628 0.255771 
-0.248480 0.215965 0.299510 -0.859610 0.425958 0.282193 
-0.241118 0.223482 0.303889 -0.844199 0.447240 0.295476 
-0.229249 0.231501 0.310943 -0.813916 0.502924 0.290878 
-0.210184 0.240326 0.322273 -0.761219 0.580158 0.289764 
-0.139754 0.366618 0.364185 0.090804 -0.811085 0.577837 
-0.155620 0.371359 0.354766 -0.060647 -0.840302 0.538717 
-0.164853 0.376983 0.349282 -0.186680 -0.828771 0.527531 
-0.171023 0.383023 0.345625 -0.252032 -0.825797 0.504521 
-0.175501 0.389292 0.342967 -0.320725 -0.808334 0.493692 
-0.178582 0.395750 0.341144 -0.379803 -0.793434 0.475620 
-0.181325 0.402246 0.339522 -0.447514 -0.759237 0.472536 
-0.183739 0.408781 0.338090 -0.520070 -0.729577 0.444123 
-0.186260 0.415286 0.336598 -0.558992 -0.702657 0.440231 
-0.188721 0.421798 0.335142 -0.597782 -0.681803 0.421665 
-0.191431 0.428257 0.333538 -0.624834 -0.659335 0.418161 
-0.193819 0.434761 0.332119 -0.653501 -0.632931 0.415134 
-0.195114 0.441425 0.331356 -0.685622 -0.599365 0.413140 
-0.191745 0.448864 0.333359 -0.706615 -0.574971 0.412436 
-0.282420 -0.464060 0.271132 0.267397 -0.925522 0.268157 
-0.310554 -0.454523 0.254492 0.178314 -0.946812 0.267869 
-0.329529 -0.445998 0.243277 0.058635 -0.961187 0.269594 
-0.342842 -0.438111 0.235406 -0.009413 -0.960998 0.276397 
-0.352820 -0.430584 0.229509 -0.085444 -0.955035 0.283916 
-0.361502 -0.423223 0.224377 -0.128454 -0.948805 0.288565 
-0.369449 -0.415959 0.219680 -0.187652 -0.935349 0.299849 
-0.376289 -0.408830 0.215640 -0.235312 -0.920067 0.313220 
-0.381982 -0.401830 0.212281 -0.264066 -0.908276 0.324508 
-0.387517 -0.394859 0.209011 -0.292940 -0.898093 0.328046 
-0.392932 -0.387926 0.205809 -0.327125 -0.883728 0.334687 
-0.398200 -0.381023 0.202696 -0.348531 -0.874447 0.337446 
-0.403095 -0.374173 0.199805 -0.377008 -0.859563 0.344990 
-0.407889 -0.367353 0.196980 -0.403931 -0.843139 0.354902 
-0.412450 -0.360563 0.194281 -0.426872 -0.827937 0.363734 
-0.416559 -0.353833 0.191859 -0.451891 -0.809717 0.374371 
-0.420143 -0.347148 0.189741 -0.475461 -0.791373 0.384273 
-0.423710 -0.340486 0.187641 -0.498844 -0.770127 0.397569 
-0.427132 -0.333847 0.185620 -0.520546 -0.748150 0.411468 
-0.430196 -0.327237 0.183813 -0.537669 -0.730550 0.420963 
-0.432918 -0.320672 0.182203 -0.555624 -0.709398 0.433632 
-0.435513 -0.314114 0.180672 -0.574487 -0.688045 0.443353 
-0.437820 -0.307593 0.179311 -0.592817 -0.666430 0.452149 
-0.440407 -0.301060 0.177785 -0.610963 -0.646420 0.457019 
-0.442564 -0.294562 0.176516 -0.630757 -0.625445 0.459311 
-0.444407 -0.288088 0.175429 -0.652894 -0.604345 0.456616 
-0.446049 -0.281636 0.174460 -0.676750 -0.585047 0.446911 
-0.447365 -0.275206 0.173687 -0.695294 -0.570714 0.436866 
-0.448506 -0.268785 0.173018 -0.718899 -0.556813 0.416107 
-0.448995 -0.262399 0.172736 -0.741783 -0.544894 0.390958 
-0.449422 -0.256022 0.172484 -0.760447 -0.538314 0.363234 
-0.449610 -0.249651 0.172376 -0.778272 -0.531403 0.334519 
-0.450176 -0.243266 0.172046 -0.797703 -0.525250 0.296281 
-0.450959 -0.236882 0.171591 -0.816703 -0.519999 0.250195 
-0.451870 -0.230490 0.171055 -0.830134 -0.515010 0.213645 
-0.452873 -0.224105 0.170465 -0.845136 -0.506285 0.171525 
-0.453875 -0.217720 0.169874 -0.858714 -0.495217 0.131793 
-0.454217 -0.211358 0.169673 -0.873280 -0.477321 0.097713 
-0.454461 -0.204995 0.169539 -0.888645 -0.453747 0.066510 
-0.454570 -0.198649 0.169478 -0.906058 -0.421829 0.033418 
-0.453993 -0.192308 0.169821 -0.922174 -0.386552 0.013155 
-0.453127 -0.185975 0.170344 -0.942860 -0.333179 0.002723 
-0.451787 -0.179649 0.171135 -0.962636 -0.270352 -0.015554 
-0.449995 -0.173323 0.172203 -0.978800 -0.202532 -0.030523 
-0.447801 -0.166989 0.173500 -0.992269 -0.114990 -0.046675 
-0.444345 -0.160669 0.175552 -0.997293 -0.041572 -0.060648 
-0.440744 -0.154341 0.177686 -0.995667 0.050864 -0.077849 
-0.436891 -0.147991 0.179971 -0.986291 0.142050 -0.083989 
-0.431397 -0.141647 0.183220 -0.963955 0.246027 -0.101296 
-0.423959 -0.135287 0.187629 -0.933488 0.344825 -0.098467 
-0.412755 -0.128901 0.194258 -0.872092 0.476540 -0.111199 
-0.394858 -0.122479 0.204852 -0.768023 0.635035 -0.082893 
-0.356470 -0.115959 0.227558 -0.910094 0.329735 0.251001 
-0.343117 -0.109369 0.235465 -0.892349 -0.236284 0.384554 
-0.338521 -0.102776 0.238190 -0.858961 -0.350827 0.372972 
-0.338485 -0.096187 0.238212 -0.829866 -0.412504 0.375718 
-0.338636 -0.089606 0.238131 -0.813670 -0.459588 0.355977 
-0.339477 -0.083031 0.237639 -0.792899 -0.505507 0.340257 
-0.340597 -0.076466 0.236981 -0.771789 -0.543520 0.330040 
-0.342068 -0.069907 0.236113 -0.751347 -0.577410 0.319491 
-0.343470 -0.063357 0.235289 -0.733129 -0.602567 0.315333 
-0.344979 -0.056807 0.234396 -0.721319 -0.621541 0.305589 
-0.346829 -0.050279 0.233305 -0.719287 -0.627626 0.297847 
-0.348400 -0.043743 0.232381 -0.725380 -0.623602 0.291451 
-0.349984 -0.037224 0.231448 -0.738262 -0.610860 0.286041 
-0.351732 -0.030710 0.230425 -0.752899 -0.594387 0.282574 
-0.353073 -0.024191 0.229632 -0.768064 -0.574627 0.282635 
-0.354102 -0.017669 0.229029 -0.780933 -0.556010 0.284600 
-0.354487 -0.011126 0.228807 -0.793724 -0.535954 0.287676 
-0.354660 -0.004583 0.228707 -0.805465 -0.514415 0.294284 
-0.354555 0.001977 0.228772 -0.814822 -0.494954 0.301807 
-0.354201 0.008544 0.228986 -0.821819 -0.477682 0.310536 
-0.354143 0.015095 0.229027 -0.827629 -0.461417 0.319569 
-0.354507 0.021631 0.228815 -0.832479 -0.445278 0.329704 
-0.354995 0.028160 0.228533 -0.836417 -0.432883 0.336185 
-0.355227 0.034705 0.228395 -0.842112 -0.417106 0.341862 
-0.355456 0.041241 0.228268 -0.850913 -0.397439 0.343499 
-0.355637 0.047784 0.228164 -0.862268 -0.374457 0.340992 
-0.355493 0.054344 0.228258 -0.874274 -0.350432 0.335921 
-0.355317 0.060903 0.228366 -0.889266 -0.323660 0.323188 
-0.354656 0.067493 0.228759 -0.907055 -0.287597 0.307473 
-0.353848 0.074091 0.229244 -0.924173 -0.248628 0.289979 
-0.352528 0.080725 0.230026 -0.941887 -0.201510 0.268782 
-0.350533 0.087408 0.231213 -0.956351 -0.155317 0.247521 
-0.348407 0.094112 0.232475 -0.967091 -0.110559 0.229157 
-0.345775 0.100854 0.234031 -0.974198 -0.061822 0.217061 
-0.342616 0.107642 0.235912 -0.978429 -0.009639 0.206356 
-0.338830 0.114490 0.238147 -0.978658 0.033722 0.202711 
-0.334203 0.121410 0.240895 -0.974950 0.074765 0.209483 
-0.329342 0.128373 0.243769 -0.968583 0.109028 0.223516 
-0.324276 0.135367 0.246772 -0.960969 0.138037 0.239757 
-0.319939 0.142328 0.249342 -0.953709 0.162769 0.252875 
-0.316046 0.149269 0.251647 -0.945362 0.186969 0.267085 
-0.311972 0.156240 0.254069 -0.938437 0.208404 0.275507 
-0.307133 0.163293 0.256933 -0.930611 0.236692 0.279179 
-0.301147 0.170461 0.260480 -0.922560 0.278287 0.267282 
-0.294195 0.177742 0.264595 -0.908835 0.332396 0.252057 
-0.285881 0.185176 0.269517 -0.896782 0.371625 0.240162 
-0.275651 0.192824 0.275575 -0.890136 0.394074 0.228829 
-0.264314 0.200623 0.282288 -0.889786 0.397333 0.224516 
-0.256112 0.208155 0.287146 -0.888051 0.395620 0.234200 
-0.249813 0.215536 0.290875 -0.890638 0.391918 0.230575 
-0.243860 0.222899 0.294405 -0.867666 0.429240 0.250818 
-0.234758 0.230621 0.299790 -0.846329 0.469845 0.250940 
-0.217428 0.239241 0.310050 -0.796239 0.551500 0.248702 
-0.199630 0.247989 0.320586 -0.728622 0.650467 0.214486 
-0.145875 0.365321 0.352455 0.006642 -0.870293 0.492491 
-0.155853 0.370884 0.346564 -0.095615 -0.874408 0.475679 
-0.163484 0.376743 0.342050 -0.198091 -0.861289 0.467913 
-0.169964 0.382731 0.338221 -0.267361 -0.855032 0.444342 
-0.173625 0.389112 0.336057 -0.339457 -0.834995 0.433075 
-0.176631 0.395579 0.334286 -0.384051 -0.817342 0.429488 
-0.179179 0.402106 0.332780 -0.465964 -0.782087 0.413785 
-0.181695 0.408627 0.331297 -0.515491 -0.753349 0.408333 
-0.184268 0.415123 0.329779 -0.552008 -0.725334 0.411313 
-0.187001 0.421589 0.328170 -0.585296 -0.704304 0.401729 
-0.190318 0.427949 0.326212 -0.623878 -0.667431 0.406586 
-0.193114 0.434378 0.324563 -0.651051 -0.640926 0.406630 
-0.194540 0.441018 0.323719 -0.682205 -0.609041 0.404556 
-0.191143 0.448457 0.325735 -0.710711 -0.573825 0.406959 
-0.281859 -0.463810 0.263707 0.261212 -0.933710 0.244856 
-0.309871 -0.454286 0.247213 0.177635 -0.952829 0.246098 
-0.327014 -0.445957 0.237116 0.061954 -0.967333 0.245827 
-0.339778 -0.438115 0.229596 0.005998 -0.968280 0.249798 
-0.350291 -0.430543 0.223407 -0.075665 -0.963142 0.258132 
-0.359396 -0.423145 0.218055 -0.120540 -0.955531 0.269131 
-0.367456 -0.415872 0.213310 -0.173430 -0.946396 0.272502 
-0.374281 -0.408745 0.209294 -0.221961 -0.932482 0.284979 
-0.380427 -0.401707 0.205675 -0.253577 -0.921116 0.295373 
-0.385782 -0.394758 0.202520 -0.290735 -0.907370 0.303570 
-0.390996 -0.387840 0.199452 -0.316352 -0.898150 0.305365 
-0.396192 -0.380952 0.196401 -0.341720 -0.886228 0.312779 
-0.401260 -0.374087 0.193414 -0.366860 -0.873514 0.319982 
-0.406057 -0.367268 0.190596 -0.393020 -0.859284 0.327366 
-0.410625 -0.360485 0.187912 -0.419295 -0.843138 0.336619 
-0.414662 -0.353755 0.185533 -0.441635 -0.829674 0.341470 
-0.418629 -0.347055 0.183199 -0.465681 -0.811943 0.351980 
-0.422390 -0.340377 0.180993 -0.489007 -0.792937 0.363488 
-0.425949 -0.333730 0.178894 -0.509546 -0.774952 0.373915 
-0.429101 -0.327120 0.177044 -0.530243 -0.754267 0.387202 
-0.431887 -0.320548 0.175410 -0.548266 -0.735389 0.398255 
-0.434495 -0.314000 0.173873 -0.567162 -0.714905 0.408948 
-0.437247 -0.307457 0.172256 -0.587814 -0.692597 0.418073 
-0.440118 -0.300907 0.170570 -0.609955 -0.670698 0.422041 
-0.442257 -0.294418 0.169311 -0.633687 -0.646493 0.424837 
-0.444221 -0.287943 0.168162 -0.659121 -0.623327 0.420743 
-0.446339 -0.281476 0.166913 -0.686940 -0.601336 0.408057 
-0.447764 -0.275039 0.166086 -0.713730 -0.577172 0.396816 
-0.448816 -0.268632 0.165462 -0.740907 -0.556898 0.375393 
-0.449262 -0.262261 0.165210 -0.764994 -0.540151 0.350745 
-0.449358 -0.255900 0.165157 -0.784122 -0.526961 0.327818 
-0.449174 -0.249552 0.165269 -0.806233 -0.514588 0.291868 
-0.448983 -0.243204 0.165386 -0.825154 -0.505631 0.251906 
-0.449211 -0.236842 0.165258 -0.841404 -0.499603 0.206004 
-0.449613 -0.230471 0.165020 -0.853472 -0.494327 0.165004 
-0.450429 -0.224087 0.164548 -0.865676 -0.486950 0.116126 
-0.451275 -0.217710 0.164052 -0.873705 -0.480696 0.074645 
-0.451619 -0.211347 0.163851 -0.882200 -0.468881 0.043313 
-0.451860 -0.204992 0.163716 -0.895531 -0.444921 0.008348 
-0.452003 -0.198637 0.163639 -0.906697 -0.421210 -0.021969 
-0.451446 -0.192298 0.163965 -0.916764 -0.395857 -0.053292 
-0.450643 -0.185964 0.164446 -0.934305 -0.348435 -0.075280 
-0.449191 -0.179638 0.165302 -0.954526 -0.283553 -0.092078 
-0.447274 -0.173311 0.166442 -0.969638 -0.222339 -0.101828 
-0.445046 -0.166986 0.167755 -0.981785 -0.143315 -0.124738 
-0.441736 -0.160666 0.169710 -0.989815 -0.054656 -0.131449 
-0.438426 -0.154331 0.171664 -0.989250 0.025054 -0.144069 
-0.434450 -0.147988 0.174010 -0.982827 0.106410 -0.150764 
-0.428935 -0.141636 0.177263 -0.962857 0.217697 -0.159729 
-0.421677 -0.135276 0.181546 -0.935245 0.320404 -0.150522 
-0.410426 -0.128897 0.188183 -0.878458 0.455306 -0.144941 
-0.394546 -0.122478 0.197540 -0.796844 0.590285 -0.128857 
-0.367594 -0.115975 0.213428 -0.814453 0.580227 -0.002312 
-0.345632 -0.109384 0.226366 -0.933281 -0.127767 0.335651 
-0.339277 -0.102790 0.230123 -0.885020 -0.311200 0.346257 
-0.337218 -0.096200 0.231334 -0.860774 -0.375757 0.343327 
-0.337733 -0.089618 0.231038 -0.835182 -0.442366 0.326779 
-0.338209 -0.083044 0.230761 -0.815746 -0.482394 0.319147 
-0.339056 -0.076477 0.230266 -0.784201 -0.535609 0.313294 
-0.340280 -0.069920 0.229547 -0.761790 -0.571380 0.305292 
-0.341793 -0.063369 0.228659 -0.742987 -0.600025 0.296545 
-0.343341 -0.056833 0.227755 -0.730416 -0.618816 0.289069 
-0.345119 -0.050299 0.226708 -0.725041 -0.628131 0.282432 
-0.346705 -0.043771 0.225783 -0.728616 -0.626343 0.277153 
-0.348284 -0.037252 0.224855 -0.738418 -0.616356 0.273580 
-0.349985 -0.030739 0.223855 -0.751058 -0.601551 0.272120 
-0.351336 -0.024225 0.223065 -0.763483 -0.584953 0.273724 
-0.352337 -0.017696 0.222475 -0.776814 -0.565309 0.277462 
-0.352535 -0.011153 0.222373 -0.788331 -0.546816 0.282006 
-0.352535 -0.004609 0.222376 -0.799486 -0.526330 0.289477 
-0.352416 0.001950 0.222449 -0.808550 -0.509033 0.295182 
-0.352342 0.008502 0.222497 -0.815522 -0.492295 0.304250 
-0.352581 0.015045 0.222358 -0.822038 -0.476342 0.312012 
-0.353337 0.021558 0.221914 -0.827887 -0.461611 0.318619 
-0.353748 0.028087 0.221680 -0.833882 -0.446665 0.324239 
-0.354216 0.034616 0.221407 -0.842141 -0.429868 0.325595 
-0.354549 0.041144 0.221219 -0.852730 -0.410302 0.323271 
-0.354768 0.047680 0.221088 -0.866257 -0.385357 0.317959 
-0.354840 0.054224 0.221056 -0.881333 -0.359473 0.306642 
-0.354579 0.060784 0.221216 -0.897088 -0.331065 0.292624 
-0.353912 0.067366 0.221612 -0.915605 -0.292048 0.276362 
-0.353015 0.073971 0.222141 -0.932063 -0.255220 0.257145 
-0.351605 0.080607 0.222977 -0.949434 -0.207570 0.235564 
-0.349536 0.087288 0.224201 -0.962966 -0.161622 0.215812 
-0.347251 0.093993 0.225550 -0.972929 -0.117331 0.199108 
-0.344640 0.100735 0.227097 -0.979186 -0.077751 0.187481 
-0.341382 0.107523 0.229017 -0.983636 -0.023398 0.178639 
-0.337570 0.114372 0.231267 -0.983347 0.015978 0.181033 
-0.333061 0.121282 0.233931 -0.981644 0.048243 0.184524 
-0.328334 0.128231 0.236721 -0.975718 0.084873 0.201914 
-0.323819 0.135179 0.239388 -0.971287 0.109349 0.211293 
-0.319980 0.142095 0.241651 -0.964222 0.135356 0.227936 
-0.316755 0.148975 0.243554 -0.957667 0.159051 0.239952 
-0.312742 0.155930 0.245929 -0.951997 0.180605 0.247148 
-0.307731 0.162991 0.248886 -0.944110 0.214156 0.250587 
-0.301687 0.170160 0.252454 -0.934026 0.261980 0.242822 
-0.294827 0.177425 0.256498 -0.918795 0.320063 0.231035 
-0.287445 0.184768 0.260852 -0.905762 0.364421 0.216317 
-0.277844 0.192347 0.266510 -0.897102 0.391592 0.204608 
-0.266529 0.200123 0.273187 -0.895993 0.396550 0.199860 
-0.256872 0.207794 0.278883 -0.895382 0.393689 0.208089 
-0.250417 0.215173 0.282690 -0.897540 0.389530 0.206606 
-0.244621 0.222523 0.286109 -0.897074 0.395031 0.198011 
-0.236666 0.230115 0.290800 -0.873641 0.442153 0.203105 
-0.224280 0.238203 0.298107 -0.836378 0.509170 0.203021 
-0.205232 0.247058 0.309336 -0.762147 0.622290 0.178569 
-0.127393 0.360471 0.355273 0.141630 -0.863418 0.484201 
-0.145252 0.364983 0.344756 -0.020924 -0.894550 0.446480 
-0.154672 0.370615 0.339204 -0.112726 -0.900746 0.419465 
-0.161616 0.376564 0.335118 -0.199809 -0.885193 0.420133 
-0.167710 0.382613 0.331534 -0.272931 -0.873505 0.403110 
-0.171458 0.388979 0.329325 -0.339163 -0.851875 0.399094 
-0.174540 0.395438 0.327517 -0.394188 -0.833191 0.387827 
-0.177454 0.401905 0.325803 -0.454336 -0.801879 0.388033 
-0.180340 0.408364 0.324109 -0.514835 -0.766854 0.383251 
-0.183710 0.414731 0.322124 -0.552597 -0.740017 0.383422 
-0.187751 0.420986 0.319752 -0.586916 -0.711263 0.386826 
-0.191365 0.427292 0.317628 -0.613721 -0.688699 0.386058 
-0.193725 0.433782 0.316240 -0.636948 -0.666521 0.387359 
-0.194005 0.440613 0.316079 -0.667415 -0.636531 0.386506 
-0.189337 0.448256 0.318831 -0.688249 -0.611968 0.389626 
-0.279821 -0.463709 0.257165 0.267835 -0.935357 0.231027 
-0.306759 -0.454298 0.241360 0.176835 -0.958342 0.224300 
-0.325017 -0.445855 0.230654 0.068378 -0.973022 0.220353 
-0.337165 -0.438082 0.223528 0.018174 -0.974595 0.223240 
-0.347549 -0.430524 0.217435 -0.069112 -0.970142 0.232484 
-0.356389 -0.423148 0.212260 -0.109219 -0.964513 0.240388 
-0.365073 -0.415826 0.207160 -0.167853 -0.952913 0.252553 
-0.371975 -0.408689 0.203112 -0.208705 -0.943958 0.255705 
-0.378409 -0.401629 0.199342 -0.242445 -0.933100 0.265605 
-0.383895 -0.394673 0.196130 -0.280022 -0.919555 0.275695 
-0.389174 -0.387755 0.193038 -0.309902 -0.907915 0.282226 
-0.394208 -0.380875 0.190085 -0.337590 -0.896092 0.288192 
-0.398885 -0.374047 0.187345 -0.356005 -0.887860 0.291487 
-0.403718 -0.367226 0.184519 -0.381682 -0.875088 0.297554 
-0.408432 -0.360429 0.181750 -0.407208 -0.860706 0.305563 
-0.412546 -0.353699 0.179343 -0.431178 -0.845563 0.314820 
-0.416601 -0.346992 0.176964 -0.454766 -0.831054 0.320218 
-0.420547 -0.340299 0.174656 -0.477506 -0.815093 0.328045 
-0.424208 -0.333653 0.172508 -0.499627 -0.797195 0.338903 
-0.427600 -0.327028 0.170528 -0.518202 -0.781059 0.348445 
-0.430826 -0.320433 0.168641 -0.538660 -0.761638 0.360215 
-0.433548 -0.313884 0.167047 -0.560194 -0.742106 0.368054 
-0.436348 -0.307333 0.165405 -0.582153 -0.721100 0.375653 
-0.439202 -0.300799 0.163737 -0.607915 -0.696389 0.381420 
-0.441360 -0.294310 0.162468 -0.635556 -0.670091 0.383467 
-0.443627 -0.287821 0.161144 -0.666576 -0.641949 0.378916 
-0.445795 -0.281354 0.159877 -0.695622 -0.616073 0.369547 
-0.447173 -0.274931 0.159074 -0.726224 -0.588149 0.355919 
-0.448235 -0.268525 0.158454 -0.755803 -0.561818 0.336336 
-0.448788 -0.262148 0.158130 -0.782607 -0.537569 0.313918 
-0.448860 -0.255792 0.158097 -0.804585 -0.518849 0.288859 
-0.448539 -0.249460 0.158288 -0.829943 -0.499911 0.247555 
-0.448016 -0.243127 0.158604 -0.847772 -0.487575 0.208697 
-0.447903 -0.236779 0.158671 -0.864101 -0.475368 0.165399 
-0.447600 -0.230439 0.158852 -0.874794 -0.469834 0.118289 
-0.447880 -0.224077 0.158691 -0.882108 -0.465146 0.074325 
-0.447645 -0.217729 0.158837 -0.887839 -0.459259 0.028665 
-0.448466 -0.211351 0.158355 -0.894245 -0.447291 -0.016031 
-0.448720 -0.204996 0.158214 -0.900063 -0.432434 -0.053743 
-0.448908 -0.198642 0.158108 -0.906957 -0.413503 -0.080267 
-0.448396 -0.192301 0.158409 -0.915348 -0.387204 -0.110508 
-0.447520 -0.185969 0.158928 -0.926907 -0.348664 -0.138841 
-0.446062 -0.179642 0.159787 -0.941218 -0.296825 -0.161257 
-0.443965 -0.173316 0.161026 -0.956591 -0.236759 -0.169938 
-0.441806 -0.166989 0.162293 -0.971183 -0.147303 -0.187364 
-0.438775 -0.160662 0.164076 -0.977321 -0.076670 -0.197394 
-0.435509 -0.154327 0.166000 -0.979300 0.007713 -0.202265 
-0.431098 -0.147991 0.168591 -0.974955 0.087752 -0.204361 
-0.425592 -0.141640 0.171829 -0.960035 0.189241 -0.206205 
-0.418517 -0.135273 0.175988 -0.939058 0.274975 -0.206298 
-0.408202 -0.128894 0.182045 -0.887321 0.422239 -0.185406 
-0.393132 -0.122467 0.190894 -0.803823 0.573841 -0.156764 
-0.370652 -0.115983 0.204083 -0.782065 0.619691 -0.066019 
-0.350841 -0.109410 0.215717 -0.958572 0.230693 0.167095 
-0.339124 -0.102796 0.222603 -0.915146 -0.273660 0.296003 
-0.337122 -0.096214 0.223778 -0.882585 -0.368116 0.292465 
-0.336259 -0.089631 0.224290 -0.859507 -0.416496 0.296275 
-0.336742 -0.083057 0.224010 -0.824749 -0.482671 0.294650 
-0.337564 -0.076499 0.223535 -0.799335 -0.529061 0.284884 
-0.338622 -0.069940 0.222918 -0.774217 -0.565313 0.284623 
-0.340174 -0.063390 0.222009 -0.754738 -0.596775 0.272453 
-0.341740 -0.056854 0.221094 -0.739353 -0.616759 0.270122 
-0.343361 -0.050319 0.220152 -0.730314 -0.629414 0.265482 
-0.344915 -0.043799 0.219245 -0.731000 -0.629739 0.262809 
-0.346475 -0.037278 0.218334 -0.737800 -0.622170 0.261827 
-0.348085 -0.030766 0.217388 -0.747772 -0.609519 0.263296 
-0.349148 -0.024238 0.216768 -0.758960 -0.594404 0.265828 
-0.350069 -0.017717 0.216233 -0.771241 -0.576369 0.270164 
-0.350258 -0.011174 0.216128 -0.783072 -0.557470 0.275725 
-0.350250 -0.004629 0.216135 -0.794111 -0.538397 0.281987 
-0.350242 0.001924 0.216143 -0.803403 -0.520477 0.289218 
-0.350574 0.008459 0.215955 -0.811005 -0.503989 0.297097 
-0.351384 0.014972 0.215486 -0.818597 -0.488265 0.302487 
-0.352181 0.021484 0.215024 -0.825229 -0.475438 0.304888 
-0.352805 0.028005 0.214657 -0.833544 -0.459300 0.307000 
-0.353229 0.034527 0.214415 -0.843129 -0.442133 0.306027 
-0.353640 0.041047 0.214180 -0.856323 -0.420544 0.299754 
-0.353801 0.047585 0.214086 -0.871944 -0.394585 0.289853 
-0.353884 0.054121 0.214040 -0.887857 -0.366948 0.277596 
-0.353557 0.060679 0.214240 -0.904316 -0.336953 0.262062 
-0.352754 0.067270 0.214715 -0.922190 -0.299440 0.244748 
-0.351721 0.073875 0.215328 -0.940040 -0.257423 0.223737 
-0.350040 0.080526 0.216316 -0.955700 -0.212366 0.203807 
-0.347974 0.087207 0.217530 -0.967888 -0.169295 0.185831 
-0.345696 0.093912 0.218877 -0.976867 -0.125718 0.172990 
-0.342903 0.100655 0.220514 -0.983519 -0.082299 0.160988 
-0.339813 0.107436 0.222333 -0.987089 -0.038895 0.155373 
-0.335939 0.114284 0.224613 -0.987223 -0.005544 0.159252 
-0.331798 0.121163 0.227050 -0.985223 0.033395 0.167989 
-0.327644 0.128066 0.229496 -0.981358 0.063301 0.181467 
-0.323534 0.134975 0.231909 -0.977284 0.087248 0.193142 
-0.319870 0.141870 0.234067 -0.973403 0.108865 0.201582 
-0.316565 0.148750 0.236011 -0.967535 0.136780 0.212524 
-0.312603 0.155696 0.238335 -0.960919 0.164673 0.222526 
-0.307945 0.162720 0.241074 -0.954118 0.197808 0.224793 
-0.302342 0.169842 0.244371 -0.945410 0.246115 0.213604 
-0.295572 0.177094 0.248343 -0.932500 0.297479 0.204813 
-0.288204 0.184429 0.252673 -0.915474 0.353028 0.193078 
-0.279479 0.191917 0.257802 -0.904315 0.386186 0.181864 
-0.267956 0.199709 0.264567 -0.901740 0.396149 0.173003 
-0.258459 0.207348 0.270148 -0.904579 0.388668 0.175136 
-0.250986 0.214827 0.274540 -0.904035 0.387473 0.180515 
-0.244481 0.222230 0.278363 -0.902514 0.393484 0.175047 
-0.237766 0.229685 0.282309 -0.895148 0.418427 0.153717 
-0.227824 0.237513 0.288146 -0.865423 0.479727 0.144587 
-0.209803 0.246240 0.298727 -0.802628 0.582300 0.129286 
-0.179198 0.256425 0.316698 -0.712740 0.689832 0.127023 
-0.131666 0.359457 0.344662 0.087235 -0.896393 0.434595 
-0.144519 0.364654 0.337122 -0.014058 -0.914263 0.404877 
-0.152890 0.370429 0.332211 -0.111568 -0.914249 0.389489 
-0.159559 0.376415 0.328307 -0.210812 -0.902990 0.374389 
-0.165418 0.382501 0.324873 -0.271984 -0.888723 0.369051 
-0.169211 0.388863 0.322649 -0.337594 -0.866660 0.367329 
-0.173082 0.395191 0.320381 -0.385240 -0.847243 0.365745 
-0.176812 0.401537 0.318198 -0.451759 -0.814040 0.365039 
-0.180537 0.407859 0.316009 -0.517376 -0.774923 0.363067 
-0.184435 0.414144 0.313725 -0.545825 -0.752292 0.368961 
-0.188530 0.420381 0.311327 -0.579316 -0.723405 0.375604 
-0.190901 0.426878 0.309943 -0.602606 -0.703857 0.376100 
